0.1572222222222222 0.03333333333333333 0.09
0.1572222222222222 0.03333333333333333 0.0925
0.1572222222222222 0.03333333333333333 0.095
0.1572222222222222 0.03333333333333333 0.09749999999999999
0.1572222222222222 0.03333333333333333 0.09999999999999999
0.1572222222222222 0.03333333333333333 0.1025
0.1572222222222222 0.03333333333333333 0.105
0.1572222222222222 0.03333333333333333 0.10749999999999998
0.1572222222222222 0.03333333333333333 0.10999999999999999
0.1572222222222222 0.044444444444444446 0.0875
0.1572222222222222 0.044444444444444446 0.09
0.1572222222222222 0.044444444444444446 0.0925
0.1572222222222222 0.044444444444444446 0.095
0.1572222222222222 0.044444444444444446 0.09749999999999999
0.1572222222222222 0.044444444444444446 0.09999999999999999
0.1572222222222222 0.044444444444444446 0.1025
0.1572222222222222 0.044444444444444446 0.105
0.1572222222222222 0.044444444444444446 0.10749999999999998
0.1572222222222222 0.044444444444444446 0.10999999999999999
0.1572222222222222 0.05555555555555556 0.0875
0.1572222222222222 0.05555555555555556 0.09
0.1572222222222222 0.05555555555555556 0.0925
0.1572222222222222 0.05555555555555556 0.095
0.1572222222222222 0.05555555555555556 0.09749999999999999
0.1572222222222222 0.05555555555555556 0.09999999999999999
0.1572222222222222 0.05555555555555556 0.1025
0.1572222222222222 0.05555555555555556 0.105
0.1572222222222222 0.05555555555555556 0.10749999999999998
0.1572222222222222 0.05555555555555556 0.10999999999999999
0.1572222222222222 0.06666666666666667 0.0875
0.1572222222222222 0.06666666666666667 0.09
0.1572222222222222 0.06666666666666667 0.0925
0.1572222222222222 0.06666666666666667 0.095
0.1572222222222222 0.06666666666666667 0.09749999999999999
0.1572222222222222 0.06666666666666667 0.09999999999999999
0.1572222222222222 0.06666666666666667 0.1025
0.1572222222222222 0.06666666666666667 0.105
0.1572222222222222 0.06666666666666667 0.10749999999999998
0.1572222222222222 0.06666666666666667 0.10999999999999999
0.1572222222222222 0.07777777777777778 0.0875
0.1572222222222222 0.07777777777777778 0.09
0.1572222222222222 0.07777777777777778 0.0925
0.1572222222222222 0.07777777777777778 0.095
0.1572222222222222 0.07777777777777778 0.09749999999999999
0.1572222222222222 0.07777777777777778 0.09999999999999999
0.1572222222222222 0.07777777777777778 0.1025
0.1572222222222222 0.07777777777777778 0.105
0.1572222222222222 0.07777777777777778 0.10749999999999998
0.1572222222222222 0.07777777777777778 0.10999999999999999
0.1572222222222222 0.08888888888888889 0.0875
0.1572222222222222 0.08888888888888889 0.09
0.1572222222222222 0.08888888888888889 0.0925
0.1572222222222222 0.08888888888888889 0.095
0.1572222222222222 0.08888888888888889 0.09749999999999999
0.1572222222222222 0.08888888888888889 0.09999999999999999
0.1572222222222222 0.08888888888888889 0.1025
0.1572222222222222 0.08888888888888889 0.105
0.1572222222222222 0.08888888888888889 0.10749999999999998
0.1572222222222222 0.08888888888888889 0.10999999999999999
0.1572222222222222 0.1 0.0875
0.1572222222222222 0.1 0.09
0.1572222222222222 0.1 0.0925
0.1572222222222222 0.1 0.095
0.1572222222222222 0.1 0.09749999999999999
0.1572222222222222 0.1 0.09999999999999999
0.1572222222222222 0.1 0.1025
0.1572222222222222 0.1 0.105
0.1572222222222222 0.1 0.10749999999999998
0.1572222222222222 0.1 0.10999999999999999
0.15791666666666668 0.0 0.0875
0.15791666666666668 0.0 0.09
0.15791666666666668 0.0 0.0925
0.15791666666666668 0.0 0.095
0.15791666666666668 0.0 0.09749999999999999
0.15791666666666668 0.0 0.09999999999999999
0.15791666666666668 0.0 0.1025
0.15791666666666668 0.0 0.105
0.15791666666666668 0.0 0.10749999999999998
0.15791666666666668 0.0 0.10999999999999999
0.15791666666666668 0.011111111111111112 0.0875
0.15791666666666668 0.011111111111111112 0.09
0.15791666666666668 0.011111111111111112 0.0925
0.15791666666666668 0.011111111111111112 0.095
0.15791666666666668 0.011111111111111112 0.09749999999999999
0.15791666666666668 0.011111111111111112 0.09999999999999999
0.15791666666666668 0.011111111111111112 0.1025
0.15791666666666668 0.011111111111111112 0.105
0.15791666666666668 0.011111111111111112 0.10749999999999998
0.15791666666666668 0.011111111111111112 0.10999999999999999
0.15791666666666668 0.022222222222222223 0.0875
0.15791666666666668 0.022222222222222223 0.09
0.15791666666666668 0.022222222222222223 0.0925
0.15791666666666668 0.022222222222222223 0.095
0.15791666666666668 0.022222222222222223 0.09749999999999999
0.15791666666666668 0.022222222222222223 0.09999999999999999
0.15791666666666668 0.022222222222222223 0.1025
0.15791666666666668 0.022222222222222223 0.105
0.15791666666666668 0.022222222222222223 0.10749999999999998
0.15791666666666668 0.022222222222222223 0.10999999999999999
0.15791666666666668 0.03333333333333333 0.0875
0.15791666666666668 0.03333333333333333 0.09
0.15791666666666668 0.03333333333333333 0.0925
0.15791666666666668 0.03333333333333333 0.095
0.15791666666666668 0.03333333333333333 0.09749999999999999
0.15791666666666668 0.03333333333333333 0.09999999999999999
0.15791666666666668 0.03333333333333333 0.1025
0.15791666666666668 0.03333333333333333 0.105
0.15791666666666668 0.03333333333333333 0.10749999999999998
0.15791666666666668 0.03333333333333333 0.10999999999999999
0.15791666666666668 0.044444444444444446 0.0875
0.15791666666666668 0.044444444444444446 0.09
0.15791666666666668 0.044444444444444446 0.0925
0.15791666666666668 0.044444444444444446 0.095
0.15791666666666668 0.044444444444444446 0.09749999999999999
0.15791666666666668 0.044444444444444446 0.09999999999999999
0.15791666666666668 0.044444444444444446 0.1025
0.15791666666666668 0.044444444444444446 0.105
0.15791666666666668 0.044444444444444446 0.10749999999999998
0.15791666666666668 0.044444444444444446 0.10999999999999999
0.15791666666666668 0.05555555555555556 0.0875
0.15791666666666668 0.05555555555555556 0.09
0.15791666666666668 0.05555555555555556 0.0925
0.15791666666666668 0.05555555555555556 0.095
0.15791666666666668 0.05555555555555556 0.09749999999999999
0.15791666666666668 0.05555555555555556 0.09999999999999999
0.15791666666666668 0.05555555555555556 0.1025
0.15791666666666668 0.05555555555555556 0.105
0.15791666666666668 0.05555555555555556 0.10749999999999998
0.15791666666666668 0.05555555555555556 0.10999999999999999
0.15791666666666668 0.06666666666666667 0.0875
0.15791666666666668 0.06666666666666667 0.09
0.15791666666666668 0.06666666666666667 0.0925
0.15791666666666668 0.06666666666666667 0.095
0.15791666666666668 0.06666666666666667 0.09749999999999999
0.15791666666666668 0.06666666666666667 0.09999999999999999
0.15791666666666668 0.06666666666666667 0.1025
0.15791666666666668 0.06666666666666667 0.105
0.15791666666666668 0.06666666666666667 0.10749999999999998
0.15791666666666668 0.06666666666666667 0.10999999999999999
0.15791666666666668 0.07777777777777778 0.0875
0.15791666666666668 0.07777777777777778 0.09
0.15791666666666668 0.07777777777777778 0.0925
0.15791666666666668 0.07777777777777778 0.095
0.15791666666666668 0.07777777777777778 0.09749999999999999
0.15791666666666668 0.07777777777777778 0.09999999999999999
0.15791666666666668 0.07777777777777778 0.1025
0.15791666666666668 0.07777777777777778 0.105
0.15791666666666668 0.07777777777777778 0.10749999999999998
0.15791666666666668 0.07777777777777778 0.10999999999999999
0.15791666666666668 0.08888888888888889 0.0875
0.15791666666666668 0.08888888888888889 0.09
0.15791666666666668 0.08888888888888889 0.0925
0.15791666666666668 0.08888888888888889 0.095
0.15791666666666668 0.08888888888888889 0.09749999999999999
0.15791666666666668 0.08888888888888889 0.09999999999999999
0.15791666666666668 0.08888888888888889 0.1025
0.15791666666666668 0.08888888888888889 0.105
0.15791666666666668 0.08888888888888889 0.10749999999999998
0.15791666666666668 0.08888888888888889 0.10999999999999999
0.15791666666666668 0.1 0.0875
0.15791666666666668 0.1 0.09
0.15791666666666668 0.1 0.0925
0.15791666666666668 0.1 0.095
0.15791666666666668 0.1 0.09749999999999999
0.15791666666666668 0.1 0.09999999999999999
0.15791666666666668 0.1 0.1025
0.15791666666666668 0.1 0.105
0.15791666666666668 0.1 0.10749999999999998
0.15791666666666668 0.1 0.10999999999999999
0.15861111111111112 0.0 0.0875
0.15861111111111112 0.0 0.09
0.15861111111111112 0.0 0.0925
0.15861111111111112 0.0 0.095
0.15861111111111112 0.0 0.09749999999999999
0.15861111111111112 0.0 0.09999999999999999
0.15861111111111112 0.0 0.1025
0.15861111111111112 0.0 0.105
0.15861111111111112 0.0 0.10749999999999998
0.15861111111111112 0.0 0.10999999999999999
0.15861111111111112 0.011111111111111112 0.0875
0.15861111111111112 0.011111111111111112 0.09
0.15861111111111112 0.011111111111111112 0.0925
0.15861111111111112 0.011111111111111112 0.095
0.15861111111111112 0.011111111111111112 0.09749999999999999
0.15861111111111112 0.011111111111111112 0.09999999999999999
0.15861111111111112 0.011111111111111112 0.1025
0.15861111111111112 0.011111111111111112 0.105
0.15861111111111112 0.011111111111111112 0.10749999999999998
0.15861111111111112 0.011111111111111112 0.10999999999999999
0.15861111111111112 0.022222222222222223 0.0875
0.15861111111111112 0.022222222222222223 0.09
0.15861111111111112 0.022222222222222223 0.0925
0.15861111111111112 0.022222222222222223 0.095
0.15861111111111112 0.022222222222222223 0.09749999999999999
0.15861111111111112 0.022222222222222223 0.09999999999999999
0.15861111111111112 0.022222222222222223 0.1025
0.15861111111111112 0.022222222222222223 0.105
0.15861111111111112 0.022222222222222223 0.10749999999999998
0.15861111111111112 0.022222222222222223 0.10999999999999999
0.15861111111111112 0.03333333333333333 0.0875
0.15861111111111112 0.03333333333333333 0.09
0.15861111111111112 0.03333333333333333 0.0925
0.15861111111111112 0.03333333333333333 0.095
0.15861111111111112 0.03333333333333333 0.09749999999999999
0.15861111111111112 0.03333333333333333 0.09999999999999999
0.15861111111111112 0.03333333333333333 0.1025
0.15861111111111112 0.03333333333333333 0.105
0.15861111111111112 0.03333333333333333 0.10749999999999998
0.15861111111111112 0.03333333333333333 0.10999999999999999
0.15861111111111112 0.044444444444444446 0.0875
0.15861111111111112 0.044444444444444446 0.09
0.15861111111111112 0.044444444444444446 0.0925
0.15861111111111112 0.044444444444444446 0.095
0.15861111111111112 0.044444444444444446 0.09749999999999999
0.15861111111111112 0.044444444444444446 0.09999999999999999
0.15861111111111112 0.044444444444444446 0.1025
0.15861111111111112 0.044444444444444446 0.105
0.15861111111111112 0.044444444444444446 0.10749999999999998
0.15861111111111112 0.044444444444444446 0.10999999999999999
0.15861111111111112 0.05555555555555556 0.0875
0.15861111111111112 0.05555555555555556 0.09
0.15861111111111112 0.05555555555555556 0.0925
0.15861111111111112 0.05555555555555556 0.095
0.15861111111111112 0.05555555555555556 0.09749999999999999
0.15861111111111112 0.05555555555555556 0.09999999999999999
0.15861111111111112 0.05555555555555556 0.1025
0.15861111111111112 0.05555555555555556 0.105
0.15861111111111112 0.05555555555555556 0.10749999999999998
0.15861111111111112 0.05555555555555556 0.10999999999999999
0.15861111111111112 0.06666666666666667 0.0875
0.15861111111111112 0.06666666666666667 0.09
0.15861111111111112 0.06666666666666667 0.0925
0.15861111111111112 0.06666666666666667 0.095
0.15861111111111112 0.06666666666666667 0.09749999999999999
0.15861111111111112 0.06666666666666667 0.09999999999999999
0.15861111111111112 0.06666666666666667 0.1025
0.15861111111111112 0.06666666666666667 0.105
0.15861111111111112 0.06666666666666667 0.10749999999999998
0.15861111111111112 0.06666666666666667 0.10999999999999999
0.15861111111111112 0.07777777777777778 0.0875
0.15861111111111112 0.07777777777777778 0.09
0.15861111111111112 0.07777777777777778 0.0925
0.15861111111111112 0.07777777777777778 0.095
0.15861111111111112 0.07777777777777778 0.09749999999999999
0.15861111111111112 0.07777777777777778 0.09999999999999999
0.15861111111111112 0.07777777777777778 0.1025
0.15861111111111112 0.07777777777777778 0.105
0.15861111111111112 0.07777777777777778 0.10749999999999998
0.15861111111111112 0.07777777777777778 0.10999999999999999
0.15861111111111112 0.08888888888888889 0.0875
0.15861111111111112 0.08888888888888889 0.09
0.15861111111111112 0.08888888888888889 0.0925
0.15861111111111112 0.08888888888888889 0.095
0.15861111111111112 0.08888888888888889 0.09749999999999999
0.15861111111111112 0.08888888888888889 0.09999999999999999
0.15861111111111112 0.08888888888888889 0.1025
0.15861111111111112 0.08888888888888889 0.105
0.15861111111111112 0.08888888888888889 0.10749999999999998
0.15861111111111112 0.08888888888888889 0.10999999999999999
0.15861111111111112 0.1 0.0875
0.15861111111111112 0.1 0.09
0.15861111111111112 0.1 0.0925
0.15861111111111112 0.1 0.095
0.15861111111111112 0.1 0.09749999999999999
0.15861111111111112 0.1 0.09999999999999999
0.15861111111111112 0.1 0.1025
0.15861111111111112 0.1 0.105
0.15861111111111112 0.1 0.10749999999999998
0.15861111111111112 0.1 0.10999999999999999
0.15930555555555556 0.0 0.0875
0.15930555555555556 0.0 0.09
0.15930555555555556 0.0 0.0925
0.15930555555555556 0.0 0.095
0.15930555555555556 0.0 0.09749999999999999
0.15930555555555556 0.0 0.09999999999999999
0.15930555555555556 0.0 0.1025
0.15930555555555556 0.0 0.105
0.15930555555555556 0.0 0.10749999999999998
0.15930555555555556 0.0 0.10999999999999999
0.15930555555555556 0.011111111111111112 0.0875
0.15930555555555556 0.011111111111111112 0.09
0.15930555555555556 0.011111111111111112 0.0925
0.15930555555555556 0.011111111111111112 0.095
0.15930555555555556 0.011111111111111112 0.09749999999999999
0.15930555555555556 0.011111111111111112 0.09999999999999999
0.15930555555555556 0.011111111111111112 0.1025
0.15930555555555556 0.011111111111111112 0.105
0.15930555555555556 0.011111111111111112 0.10749999999999998
0.15930555555555556 0.011111111111111112 0.10999999999999999
0.15930555555555556 0.022222222222222223 0.0875
0.15930555555555556 0.022222222222222223 0.09
0.15930555555555556 0.022222222222222223 0.0925
0.15930555555555556 0.022222222222222223 0.095
0.15930555555555556 0.022222222222222223 0.09749999999999999
0.15930555555555556 0.022222222222222223 0.09999999999999999
0.15930555555555556 0.022222222222222223 0.1025
0.15930555555555556 0.022222222222222223 0.105
0.15930555555555556 0.022222222222222223 0.10749999999999998
0.15930555555555556 0.022222222222222223 0.10999999999999999
0.15930555555555556 0.03333333333333333 0.0875
0.15930555555555556 0.03333333333333333 0.09
0.15930555555555556 0.03333333333333333 0.0925
0.15930555555555556 0.03333333333333333 0.095
0.15930555555555556 0.03333333333333333 0.09749999999999999
0.15930555555555556 0.03333333333333333 0.09999999999999999
0.15930555555555556 0.03333333333333333 0.1025
0.15930555555555556 0.03333333333333333 0.105
0.15930555555555556 0.03333333333333333 0.10749999999999998
0.15930555555555556 0.03333333333333333 0.10999999999999999
0.15930555555555556 0.044444444444444446 0.0875
0.15930555555555556 0.044444444444444446 0.09
0.15930555555555556 0.044444444444444446 0.0925
0.15930555555555556 0.044444444444444446 0.095
0.15930555555555556 0.044444444444444446 0.09749999999999999
0.15930555555555556 0.044444444444444446 0.09999999999999999
0.15930555555555556 0.044444444444444446 0.1025
0.15930555555555556 0.044444444444444446 0.105
0.15930555555555556 0.044444444444444446 0.10749999999999998
0.15930555555555556 0.044444444444444446 0.10999999999999999
0.15930555555555556 0.05555555555555556 0.0875
0.15930555555555556 0.05555555555555556 0.09
0.15930555555555556 0.05555555555555556 0.0925
0.15930555555555556 0.05555555555555556 0.095
0.15930555555555556 0.05555555555555556 0.09749999999999999
0.15930555555555556 0.05555555555555556 0.09999999999999999
0.15930555555555556 0.05555555555555556 0.1025
0.15930555555555556 0.05555555555555556 0.105
0.15930555555555556 0.05555555555555556 0.10749999999999998
0.15930555555555556 0.05555555555555556 0.10999999999999999
0.15930555555555556 0.06666666666666667 0.0875
0.15930555555555556 0.06666666666666667 0.09
0.15930555555555556 0.06666666666666667 0.0925
0.15930555555555556 0.06666666666666667 0.095
0.15930555555555556 0.06666666666666667 0.09749999999999999
0.15930555555555556 0.06666666666666667 0.09999999999999999
0.15930555555555556 0.06666666666666667 0.1025
0.15930555555555556 0.06666666666666667 0.105
0.15930555555555556 0.06666666666666667 0.10749999999999998
0.15930555555555556 0.06666666666666667 0.10999999999999999
0.15930555555555556 0.07777777777777778 0.0875
0.15930555555555556 0.07777777777777778 0.09
0.15930555555555556 0.07777777777777778 0.0925
0.15930555555555556 0.07777777777777778 0.095
0.15930555555555556 0.07777777777777778 0.09749999999999999
0.15930555555555556 0.07777777777777778 0.09999999999999999
0.15930555555555556 0.07777777777777778 0.1025
0.15930555555555556 0.07777777777777778 0.105
0.15930555555555556 0.07777777777777778 0.10749999999999998
0.15930555555555556 0.07777777777777778 0.10999999999999999
0.15930555555555556 0.08888888888888889 0.0875
0.15930555555555556 0.08888888888888889 0.09
0.15930555555555556 0.08888888888888889 0.0925
0.15930555555555556 0.08888888888888889 0.095
0.15930555555555556 0.08888888888888889 0.09749999999999999
0.15930555555555556 0.08888888888888889 0.09999999999999999
0.15930555555555556 0.08888888888888889 0.1025
0.15930555555555556 0.08888888888888889 0.105
0.15930555555555556 0.08888888888888889 0.10749999999999998
0.15930555555555556 0.08888888888888889 0.10999999999999999
0.15930555555555556 0.1 0.0875
0.15930555555555556 0.1 0.09
0.15930555555555556 0.1 0.0925
0.15930555555555556 0.1 0.095
0.15930555555555556 0.1 0.09749999999999999
0.15930555555555556 0.1 0.09999999999999999
0.15930555555555556 0.1 0.1025
0.15930555555555556 0.1 0.105
0.15930555555555556 0.1 0.10749999999999998
0.15930555555555556 0.1 0.10999999999999999
0.16 0.0 0.0875
0.16 0.0 0.09
0.16 0.0 0.0925
0.16 0.0 0.095
0.16 0.0 0.09749999999999999
0.16 0.0 0.09999999999999999
0.16 0.0 0.1025
0.16 0.0 0.105
0.16 0.0 0.10749999999999998
0.16 0.0 0.10999999999999999
0.16 0.011111111111111112 0.0875
0.16 0.011111111111111112 0.09
0.16 0.011111111111111112 0.0925
0.16 0.011111111111111112 0.095
0.16 0.011111111111111112 0.09749999999999999
0.16 0.011111111111111112 0.09999999999999999
0.16 0.011111111111111112 0.1025
0.16 0.011111111111111112 0.105
0.16 0.011111111111111112 0.10749999999999998
0.16 0.011111111111111112 0.10999999999999999
0.16 0.022222222222222223 0.0875
0.16 0.022222222222222223 0.09
0.16 0.022222222222222223 0.0925
0.16 0.022222222222222223 0.095
0.16 0.022222222222222223 0.09749999999999999
0.16 0.022222222222222223 0.09999999999999999
0.16 0.022222222222222223 0.1025
0.16 0.022222222222222223 0.105
0.16 0.022222222222222223 0.10749999999999998
0.16 0.022222222222222223 0.10999999999999999
0.16 0.03333333333333333 0.0875
0.16 0.03333333333333333 0.09
0.16 0.03333333333333333 0.0925
0.16 0.03333333333333333 0.095
0.16 0.03333333333333333 0.09749999999999999
0.16 0.03333333333333333 0.09999999999999999
0.16 0.03333333333333333 0.1025
0.16 0.03333333333333333 0.105
0.16 0.03333333333333333 0.10749999999999998
0.16 0.03333333333333333 0.10999999999999999
0.16 0.044444444444444446 0.0875
0.16 0.044444444444444446 0.09
0.16 0.044444444444444446 0.0925
0.16 0.044444444444444446 0.095
0.16 0.044444444444444446 0.09749999999999999
0.16 0.044444444444444446 0.09999999999999999
0.16 0.044444444444444446 0.1025
0.16 0.044444444444444446 0.105
0.16 0.044444444444444446 0.10749999999999998
0.16 0.044444444444444446 0.10999999999999999
0.16 0.05555555555555556 0.0875
0.16 0.05555555555555556 0.09
0.16 0.05555555555555556 0.0925
0.16 0.05555555555555556 0.095
0.16 0.05555555555555556 0.09749999999999999
0.16 0.05555555555555556 0.09999999999999999
0.16 0.05555555555555556 0.1025
0.16 0.05555555555555556 0.105
0.16 0.05555555555555556 0.10749999999999998
0.16 0.05555555555555556 0.10999999999999999
0.16 0.06666666666666667 0.0875
0.16 0.06666666666666667 0.09
0.16 0.06666666666666667 0.0925
0.16 0.06666666666666667 0.095
0.16 0.06666666666666667 0.09749999999999999
0.16 0.06666666666666667 0.09999999999999999
0.16 0.06666666666666667 0.1025
0.16 0.06666666666666667 0.105
0.16 0.06666666666666667 0.10749999999999998
0.16 0.06666666666666667 0.10999999999999999
0.16 0.07777777777777778 0.0875
0.16 0.07777777777777778 0.09
0.16 0.07777777777777778 0.0925
0.16 0.07777777777777778 0.095
0.16 0.07777777777777778 0.09749999999999999
0.16 0.07777777777777778 0.09999999999999999
0.16 0.07777777777777778 0.1025
0.16 0.07777777777777778 0.105
0.16 0.07777777777777778 0.10749999999999998
0.16 0.07777777777777778 0.10999999999999999
0.16 0.08888888888888889 0.0875
0.16 0.08888888888888889 0.09
0.16 0.08888888888888889 0.0925
0.16 0.08888888888888889 0.095
0.16 0.08888888888888889 0.09749999999999999
0.16 0.08888888888888889 0.09999999999999999
0.16 0.08888888888888889 0.1025
0.16 0.08888888888888889 0.105
0.16 0.08888888888888889 0.10749999999999998
0.16 0.08888888888888889 0.10999999999999999
0.16 0.1 0.0875
0.16 0.1 0.09
0.16 0.1 0.0925
0.16 0.1 0.095
0.16 0.1 0.09749999999999999
0.16 0.1 0.09999999999999999
0.16 0.1 0.1025
0.16 0.1 0.105
0.16 0.1 0.10749999999999998
0.16 0.1 0.10999999999999999
0.0 0.1 0.0
0.0 0.1 0.012222222222222221
0.0 0.1 0.024444444444444442
0.0 0.1 0.03666666666666667
0.0 0.1 0.048888888888888885
0.0 0.1 0.061111111111111116
0.0 0.1 0.07333333333333333
0.0 0.1 0.08555555555555555
0.0 0.1 0.09777777777777777
0.0 0.1 0.11
0.0 0.10111111111111111 0.0
0.0 0.10111111111111111 0.012222222222222221
0.0 0.10111111111111111 0.024444444444444442
0.0 0.10111111111111111 0.03666666666666667
0.0 0.10111111111111111 0.048888888888888885
0.0 0.10111111111111111 0.061111111111111116
0.0 0.10111111111111111 0.07333333333333333
0.0 0.10111111111111111 0.08555555555555555
0.0 0.10111111111111111 0.09777777777777777
0.0 0.10111111111111111 0.11
0.0 0.10222222222222223 0.0
0.0 0.10222222222222223 0.012222222222222221
0.0 0.10222222222222223 0.024444444444444442
0.0 0.10222222222222223 0.03666666666666667
0.0 0.10222222222222223 0.048888888888888885
0.0 0.10222222222222223 0.061111111111111116
0.0 0.10222222222222223 0.07333333333333333
0.0 0.10222222222222223 0.08555555555555555
0.0 0.10222222222222223 0.09777777777777777
0.0 0.10222222222222223 0.11
0.0 0.10333333333333333 0.0
0.0 0.10333333333333333 0.012222222222222221
0.0 0.10333333333333333 0.024444444444444442
0.0 0.10333333333333333 0.03666666666666667
0.0 0.10333333333333333 0.048888888888888885
0.0 0.10333333333333333 0.061111111111111116
0.0 0.10333333333333333 0.07333333333333333
0.0 0.10333333333333333 0.08555555555555555
0.0 0.10333333333333333 0.09777777777777777
0.0 0.10333333333333333 0.11
0.0 0.10444444444444445 0.0
0.0 0.10444444444444445 0.012222222222222221
0.0 0.10444444444444445 0.024444444444444442
0.0 0.10444444444444445 0.03666666666666667
0.0 0.10444444444444445 0.048888888888888885
0.0 0.10444444444444445 0.061111111111111116
0.0 0.10444444444444445 0.07333333333333333
0.0 0.10444444444444445 0.08555555555555555
0.0 0.10444444444444445 0.09777777777777777
0.0 0.10444444444444445 0.11
0.0 0.10555555555555556 0.0
0.0 0.10555555555555556 0.012222222222222221
0.0 0.10555555555555556 0.024444444444444442
0.0 0.10555555555555556 0.03666666666666667
0.0 0.10555555555555556 0.048888888888888885
0.0 0.10555555555555556 0.061111111111111116
0.0 0.10555555555555556 0.07333333333333333
0.0 0.10555555555555556 0.08555555555555555
0.0 0.10555555555555556 0.09777777777777777
0.0 0.10555555555555556 0.11
0.0 0.10666666666666667 0.0
0.0 0.10666666666666667 0.012222222222222221
0.0 0.10666666666666667 0.024444444444444442
0.0 0.10666666666666667 0.03666666666666667
0.0 0.10666666666666667 0.048888888888888885
0.0 0.10666666666666667 0.061111111111111116
0.0 0.10666666666666667 0.07333333333333333
0.0 0.10666666666666667 0.08555555555555555
0.0 0.10666666666666667 0.09777777777777777
0.0 0.10666666666666667 0.11
0.0 0.10777777777777778 0.0
0.0 0.10777777777777778 0.012222222222222221
0.0 0.10777777777777778 0.024444444444444442
0.0 0.10777777777777778 0.03666666666666667
0.0 0.10777777777777778 0.048888888888888885
0.0 0.10777777777777778 0.061111111111111116
0.0 0.10777777777777778 0.07333333333333333
0.0 0.10777777777777778 0.08555555555555555
0.0 0.10777777777777778 0.09777777777777777
0.0 0.10777777777777778 0.11
0.0 0.1088888888888889 0.0
0.0 0.1088888888888889 0.012222222222222221
0.0 0.1088888888888889 0.024444444444444442
0.0 0.1088888888888889 0.03666666666666667
0.0 0.1088888888888889 0.048888888888888885
0.0 0.1088888888888889 0.061111111111111116
0.0 0.1088888888888889 0.07333333333333333
0.0 0.1088888888888889 0.08555555555555555
0.0 0.1088888888888889 0.09777777777777777
0.0 0.1088888888888889 0.11
0.0 0.11 0.0
0.0 0.11 0.012222222222222221
0.0 0.11 0.024444444444444442
0.0 0.11 0.03666666666666667
0.0 0.11 0.048888888888888885
0.0 0.11 0.061111111111111116
0.0 0.11 0.07333333333333333
0.0 0.11 0.08555555555555555
0.0 0.11 0.09777777777777777
0.0 0.11 0.11
0.017777777777777778 0.1 0.0
0.017777777777777778 0.1 0.012222222222222221
0.017777777777777778 0.1 0.024444444444444442
0.017777777777777778 0.1 0.03666666666666667
0.017777777777777778 0.1 0.048888888888888885
0.017777777777777778 0.1 0.061111111111111116
0.017777777777777778 0.1 0.07333333333333333
0.017777777777777778 0.1 0.08555555555555555
0.017777777777777778 0.1 0.09777777777777777
0.017777777777777778 0.1 0.11
0.017777777777777778 0.10111111111111111 0.0
0.017777777777777778 0.10111111111111111 0.012222222222222221
0.017777777777777778 0.10111111111111111 0.024444444444444442
0.017777777777777778 0.10111111111111111 0.03666666666666667
0.017777777777777778 0.10111111111111111 0.048888888888888885
0.017777777777777778 0.10111111111111111 0.061111111111111116
0.017777777777777778 0.10111111111111111 0.07333333333333333
0.017777777777777778 0.10111111111111111 0.08555555555555555
0.017777777777777778 0.10111111111111111 0.09777777777777777
0.017777777777777778 0.10111111111111111 0.11
0.017777777777777778 0.10222222222222223 0.0
0.017777777777777778 0.10222222222222223 0.012222222222222221
0.017777777777777778 0.10222222222222223 0.024444444444444442
0.017777777777777778 0.10222222222222223 0.03666666666666667
0.017777777777777778 0.10222222222222223 0.048888888888888885
0.017777777777777778 0.10222222222222223 0.061111111111111116
0.017777777777777778 0.10222222222222223 0.07333333333333333
0.017777777777777778 0.10222222222222223 0.08555555555555555
0.017777777777777778 0.10222222222222223 0.09777777777777777
0.017777777777777778 0.10222222222222223 0.11
0.017777777777777778 0.10333333333333333 0.0
0.017777777777777778 0.10333333333333333 0.012222222222222221
0.017777777777777778 0.10333333333333333 0.024444444444444442
0.017777777777777778 0.10333333333333333 0.03666666666666667
0.017777777777777778 0.10333333333333333 0.048888888888888885
0.017777777777777778 0.10333333333333333 0.061111111111111116
0.017777777777777778 0.10333333333333333 0.07333333333333333
0.017777777777777778 0.10333333333333333 0.08555555555555555
0.017777777777777778 0.10333333333333333 0.09777777777777777
0.017777777777777778 0.10333333333333333 0.11
0.017777777777777778 0.10444444444444445 0.0
0.017777777777777778 0.10444444444444445 0.012222222222222221
0.017777777777777778 0.10444444444444445 0.024444444444444442
0.017777777777777778 0.10444444444444445 0.03666666666666667
0.017777777777777778 0.10444444444444445 0.048888888888888885
0.017777777777777778 0.10444444444444445 0.061111111111111116
0.017777777777777778 0.10444444444444445 0.07333333333333333
0.017777777777777778 0.10444444444444445 0.08555555555555555
0.017777777777777778 0.10444444444444445 0.09777777777777777
0.017777777777777778 0.10444444444444445 0.11
0.017777777777777778 0.10555555555555556 0.0
0.017777777777777778 0.10555555555555556 0.012222222222222221
0.017777777777777778 0.10555555555555556 0.024444444444444442
0.017777777777777778 0.10555555555555556 0.03666666666666667
0.017777777777777778 0.10555555555555556 0.048888888888888885
0.017777777777777778 0.10555555555555556 0.061111111111111116
0.017777777777777778 0.10555555555555556 0.07333333333333333
0.017777777777777778 0.10555555555555556 0.08555555555555555
0.017777777777777778 0.10555555555555556 0.09777777777777777
0.017777777777777778 0.10555555555555556 0.11
0.017777777777777778 0.10666666666666667 0.0
0.017777777777777778 0.10666666666666667 0.012222222222222221
0.017777777777777778 0.10666666666666667 0.024444444444444442
0.017777777777777778 0.10666666666666667 0.03666666666666667
0.017777777777777778 0.10666666666666667 0.048888888888888885
0.017777777777777778 0.10666666666666667 0.061111111111111116
0.017777777777777778 0.10666666666666667 0.07333333333333333
0.017777777777777778 0.10666666666666667 0.08555555555555555
0.017777777777777778 0.10666666666666667 0.09777777777777777
0.017777777777777778 0.10666666666666667 0.11
0.017777777777777778 0.10777777777777778 0.0
0.017777777777777778 0.10777777777777778 0.012222222222222221
0.017777777777777778 0.10777777777777778 0.024444444444444442
0.017777777777777778 0.10777777777777778 0.03666666666666667
0.017777777777777778 0.10777777777777778 0.048888888888888885
0.017777777777777778 0.10777777777777778 0.061111111111111116
0.017777777777777778 0.10777777777777778 0.07333333333333333
0.017777777777777778 0.10777777777777778 0.08555555555555555
0.017777777777777778 0.10777777777777778 0.09777777777777777
0.017777777777777778 0.10777777777777778 0.11
0.017777777777777778 0.1088888888888889 0.0
0.017777777777777778 0.1088888888888889 0.012222222222222221
0.017777777777777778 0.1088888888888889 0.024444444444444442
0.017777777777777778 0.1088888888888889 0.03666666666666667
0.017777777777777778 0.1088888888888889 0.048888888888888885
0.017777777777777778 0.1088888888888889 0.061111111111111116
0.017777777777777778 0.1088888888888889 0.07333333333333333
0.017777777777777778 0.1088888888888889 0.08555555555555555
0.017777777777777778 0.1088888888888889 0.09777777777777777
0.017777777777777778 0.1088888888888889 0.11
0.017777777777777778 0.11 0.0
0.017777777777777778 0.11 0.012222222222222221
0.017777777777777778 0.11 0.024444444444444442
0.017777777777777778 0.11 0.03666666666666667
0.017777777777777778 0.11 0.048888888888888885
0.017777777777777778 0.11 0.061111111111111116
0.017777777777777778 0.11 0.07333333333333333
0.017777777777777778 0.11 0.08555555555555555
0.017777777777777778 0.11 0.09777777777777777
0.017777777777777778 0.11 0.11
0.035555555555555556 0.1 0.0
0.035555555555555556 0.1 0.012222222222222221
0.035555555555555556 0.1 0.024444444444444442
0.035555555555555556 0.1 0.03666666666666667
0.035555555555555556 0.1 0.048888888888888885
0.035555555555555556 0.1 0.061111111111111116
0.035555555555555556 0.1 0.07333333333333333
0.035555555555555556 0.1 0.08555555555555555
0.035555555555555556 0.1 0.09777777777777777
0.035555555555555556 0.1 0.11
0.035555555555555556 0.10111111111111111 0.0
0.035555555555555556 0.10111111111111111 0.012222222222222221
0.035555555555555556 0.10111111111111111 0.024444444444444442
0.035555555555555556 0.10111111111111111 0.03666666666666667
0.035555555555555556 0.10111111111111111 0.048888888888888885
0.035555555555555556 0.10111111111111111 0.061111111111111116
0.035555555555555556 0.10111111111111111 0.07333333333333333
0.035555555555555556 0.10111111111111111 0.08555555555555555
0.035555555555555556 0.10111111111111111 0.09777777777777777
0.035555555555555556 0.10111111111111111 0.11
0.035555555555555556 0.10222222222222223 0.0
0.035555555555555556 0.10222222222222223 0.012222222222222221
0.035555555555555556 0.10222222222222223 0.024444444444444442
0.035555555555555556 0.10222222222222223 0.03666666666666667
0.035555555555555556 0.10222222222222223 0.048888888888888885
0.035555555555555556 0.10222222222222223 0.061111111111111116
0.035555555555555556 0.10222222222222223 0.07333333333333333
0.035555555555555556 0.10222222222222223 0.08555555555555555
0.035555555555555556 0.10222222222222223 0.09777777777777777
0.035555555555555556 0.10222222222222223 0.11
0.035555555555555556 0.10333333333333333 0.0
0.035555555555555556 0.10333333333333333 0.012222222222222221
0.035555555555555556 0.10333333333333333 0.024444444444444442
0.035555555555555556 0.10333333333333333 0.03666666666666667
0.035555555555555556 0.10333333333333333 0.048888888888888885
0.035555555555555556 0.10333333333333333 0.061111111111111116
0.035555555555555556 0.10333333333333333 0.07333333333333333
0.035555555555555556 0.10333333333333333 0.08555555555555555
0.035555555555555556 0.10333333333333333 0.09777777777777777
0.035555555555555556 0.10333333333333333 0.11
0.035555555555555556 0.10444444444444445 0.0
0.035555555555555556 0.10444444444444445 0.012222222222222221
0.035555555555555556 0.10444444444444445 0.024444444444444442
0.035555555555555556 0.10444444444444445 0.03666666666666667
0.035555555555555556 0.10444444444444445 0.048888888888888885
0.035555555555555556 0.10444444444444445 0.061111111111111116
0.035555555555555556 0.10444444444444445 0.07333333333333333
0.035555555555555556 0.10444444444444445 0.08555555555555555
0.035555555555555556 0.10444444444444445 0.09777777777777777
0.035555555555555556 0.10444444444444445 0.11
0.035555555555555556 0.10555555555555556 0.0
0.035555555555555556 0.10555555555555556 0.012222222222222221
0.035555555555555556 0.10555555555555556 0.024444444444444442
0.035555555555555556 0.10555555555555556 0.03666666666666667
0.035555555555555556 0.10555555555555556 0.048888888888888885
0.035555555555555556 0.10555555555555556 0.061111111111111116
0.035555555555555556 0.10555555555555556 0.07333333333333333
0.035555555555555556 0.10555555555555556 0.08555555555555555
0.035555555555555556 0.10555555555555556 0.09777777777777777
0.035555555555555556 0.10555555555555556 0.11
0.035555555555555556 0.10666666666666667 0.0
0.035555555555555556 0.10666666666666667 0.012222222222222221
0.035555555555555556 0.10666666666666667 0.024444444444444442
0.035555555555555556 0.10666666666666667 0.03666666666666667
0.035555555555555556 0.10666666666666667 0.048888888888888885
0.035555555555555556 0.10666666666666667 0.061111111111111116
0.035555555555555556 0.10666666666666667 0.07333333333333333
0.035555555555555556 0.10666666666666667 0.08555555555555555
0.035555555555555556 0.10666666666666667 0.09777777777777777
0.035555555555555556 0.10666666666666667 0.11
0.035555555555555556 0.10777777777777778 0.0
0.035555555555555556 0.10777777777777778 0.012222222222222221
0.035555555555555556 0.10777777777777778 0.024444444444444442
0.035555555555555556 0.10777777777777778 0.03666666666666667
0.035555555555555556 0.10777777777777778 0.048888888888888885
0.035555555555555556 0.10777777777777778 0.061111111111111116
0.035555555555555556 0.10777777777777778 0.07333333333333333
0.035555555555555556 0.10777777777777778 0.08555555555555555
0.035555555555555556 0.10777777777777778 0.09777777777777777
0.035555555555555556 0.10777777777777778 0.11
0.035555555555555556 0.1088888888888889 0.0
0.035555555555555556 0.1088888888888889 0.012222222222222221
0.035555555555555556 0.1088888888888889 0.024444444444444442
0.035555555555555556 0.1088888888888889 0.03666666666666667
0.035555555555555556 0.1088888888888889 0.048888888888888885
0.035555555555555556 0.1088888888888889 0.061111111111111116
0.035555555555555556 0.1088888888888889 0.07333333333333333
0.035555555555555556 0.1088888888888889 0.08555555555555555
0.035555555555555556 0.1088888888888889 0.09777777777777777
0.035555555555555556 0.1088888888888889 0.11
0.035555555555555556 0.11 0.0
0.035555555555555556 0.11 0.012222222222222221
0.035555555555555556 0.11 0.024444444444444442
0.035555555555555556 0.11 0.03666666666666667
0.035555555555555556 0.11 0.048888888888888885
0.035555555555555556 0.11 0.061111111111111116
0.035555555555555556 0.11 0.07333333333333333
0.035555555555555556 0.11 0.08555555555555555
0.035555555555555556 0.11 0.09777777777777777
0.035555555555555556 0.11 0.11
0.05333333333333333 0.1 0.0
0.05333333333333333 0.1 0.012222222222222221
0.05333333333333333 0.1 0.024444444444444442
0.05333333333333333 0.1 0.03666666666666667
0.05333333333333333 0.1 0.048888888888888885
0.05333333333333333 0.1 0.061111111111111116
0.05333333333333333 0.1 0.07333333333333333
0.05333333333333333 0.1 0.08555555555555555
0.05333333333333333 0.1 0.09777777777777777
0.05333333333333333 0.1 0.11
0.05333333333333333 0.10111111111111111 0.0
0.05333333333333333 0.10111111111111111 0.012222222222222221
0.05333333333333333 0.10111111111111111 0.024444444444444442
0.05333333333333333 0.10111111111111111 0.03666666666666667
0.05333333333333333 0.10111111111111111 0.048888888888888885
0.05333333333333333 0.10111111111111111 0.061111111111111116
0.05333333333333333 0.10111111111111111 0.07333333333333333
0.05333333333333333 0.10111111111111111 0.08555555555555555
0.05333333333333333 0.10111111111111111 0.09777777777777777
0.05333333333333333 0.10111111111111111 0.11
0.05333333333333333 0.10222222222222223 0.0
0.05333333333333333 0.10222222222222223 0.012222222222222221
0.05333333333333333 0.10222222222222223 0.024444444444444442
0.05333333333333333 0.10222222222222223 0.03666666666666667
0.05333333333333333 0.10222222222222223 0.048888888888888885
0.05333333333333333 0.10222222222222223 0.061111111111111116
0.05333333333333333 0.10222222222222223 0.07333333333333333
0.05333333333333333 0.10222222222222223 0.08555555555555555
0.05333333333333333 0.10222222222222223 0.09777777777777777
0.05333333333333333 0.10222222222222223 0.11
0.05333333333333333 0.10333333333333333 0.0
0.05333333333333333 0.10333333333333333 0.012222222222222221
0.05333333333333333 0.10333333333333333 0.024444444444444442
0.05333333333333333 0.10333333333333333 0.03666666666666667
0.05333333333333333 0.10333333333333333 0.048888888888888885
0.05333333333333333 0.10333333333333333 0.061111111111111116
0.05333333333333333 0.10333333333333333 0.07333333333333333
0.05333333333333333 0.10333333333333333 0.08555555555555555
0.05333333333333333 0.10333333333333333 0.09777777777777777
0.05333333333333333 0.10333333333333333 0.11
0.05333333333333333 0.10444444444444445 0.0
0.05333333333333333 0.10444444444444445 0.012222222222222221
0.05333333333333333 0.10444444444444445 0.024444444444444442
0.05333333333333333 0.10444444444444445 0.03666666666666667
0.05333333333333333 0.10444444444444445 0.048888888888888885
0.05333333333333333 0.10444444444444445 0.061111111111111116
0.05333333333333333 0.10444444444444445 0.07333333333333333
0.05333333333333333 0.10444444444444445 0.08555555555555555
0.05333333333333333 0.10444444444444445 0.09777777777777777
0.05333333333333333 0.10444444444444445 0.11
0.05333333333333333 0.10555555555555556 0.0
0.05333333333333333 0.10555555555555556 0.012222222222222221
0.05333333333333333 0.10555555555555556 0.024444444444444442
0.05333333333333333 0.10555555555555556 0.03666666666666667
0.05333333333333333 0.10555555555555556 0.048888888888888885
0.05333333333333333 0.10555555555555556 0.061111111111111116
0.05333333333333333 0.10555555555555556 0.07333333333333333
0.05333333333333333 0.10555555555555556 0.08555555555555555
0.05333333333333333 0.10555555555555556 0.09777777777777777
0.05333333333333333 0.10555555555555556 0.11
0.05333333333333333 0.10666666666666667 0.0
0.05333333333333333 0.10666666666666667 0.012222222222222221
0.05333333333333333 0.10666666666666667 0.024444444444444442
0.05333333333333333 0.10666666666666667 0.03666666666666667
0.05333333333333333 0.10666666666666667 0.048888888888888885
0.05333333333333333 0.10666666666666667 0.061111111111111116
0.05333333333333333 0.10666666666666667 0.07333333333333333
0.05333333333333333 0.10666666666666667 0.08555555555555555
0.05333333333333333 0.10666666666666667 0.09777777777777777
0.05333333333333333 0.10666666666666667 0.11
0.05333333333333333 0.10777777777777778 0.0
0.05333333333333333 0.10777777777777778 0.012222222222222221
0.05333333333333333 0.10777777777777778 0.024444444444444442
0.05333333333333333 0.10777777777777778 0.03666666666666667
0.05333333333333333 0.10777777777777778 0.048888888888888885
0.05333333333333333 0.10777777777777778 0.061111111111111116
0.05333333333333333 0.10777777777777778 0.07333333333333333
0.05333333333333333 0.10777777777777778 0.08555555555555555
0.05333333333333333 0.10777777777777778 0.09777777777777777
0.05333333333333333 0.10777777777777778 0.11
0.05333333333333333 0.1088888888888889 0.0
0.05333333333333333 0.1088888888888889 0.012222222222222221
0.05333333333333333 0.1088888888888889 0.024444444444444442
0.05333333333333333 0.1088888888888889 0.03666666666666667
0.05333333333333333 0.1088888888888889 0.048888888888888885
0.05333333333333333 0.1088888888888889 0.061111111111111116
0.05333333333333333 0.1088888888888889 0.07333333333333333
0.05333333333333333 0.1088888888888889 0.08555555555555555
0.05333333333333333 0.1088888888888889 0.09777777777777777
0.05333333333333333 0.1088888888888889 0.11
0.05333333333333333 0.11 0.0
0.05333333333333333 0.11 0.012222222222222221
0.05333333333333333 0.11 0.024444444444444442
0.05333333333333333 0.11 0.03666666666666667
0.05333333333333333 0.11 0.048888888888888885
0.05333333333333333 0.11 0.061111111111111116
0.05333333333333333 0.11 0.07333333333333333
0.05333333333333333 0.11 0.08555555555555555
0.05333333333333333 0.11 0.09777777777777777
0.05333333333333333 0.11 0.11
0.07111111111111111 0.1 0.0
0.07111111111111111 0.1 0.012222222222222221
0.07111111111111111 0.1 0.024444444444444442
0.07111111111111111 0.1 0.03666666666666667
0.07111111111111111 0.1 0.048888888888888885
0.07111111111111111 0.1 0.061111111111111116
0.07111111111111111 0.1 0.07333333333333333
0.07111111111111111 0.1 0.08555555555555555
0.07111111111111111 0.1 0.09777777777777777
0.07111111111111111 0.1 0.11
0.07111111111111111 0.10111111111111111 0.0
0.07111111111111111 0.10111111111111111 0.012222222222222221
0.07111111111111111 0.10111111111111111 0.024444444444444442
0.07111111111111111 0.10111111111111111 0.03666666666666667
0.07111111111111111 0.10111111111111111 0.048888888888888885
0.07111111111111111 0.10111111111111111 0.061111111111111116
0.07111111111111111 0.10111111111111111 0.07333333333333333
0.07111111111111111 0.10111111111111111 0.08555555555555555
0.07111111111111111 0.10111111111111111 0.09777777777777777
0.07111111111111111 0.10111111111111111 0.11
0.07111111111111111 0.10222222222222223 0.0
0.07111111111111111 0.10222222222222223 0.012222222222222221
0.07111111111111111 0.10222222222222223 0.024444444444444442
0.07111111111111111 0.10222222222222223 0.03666666666666667
0.07111111111111111 0.10222222222222223 0.048888888888888885
0.07111111111111111 0.10222222222222223 0.061111111111111116
0.07111111111111111 0.10222222222222223 0.07333333333333333
0.07111111111111111 0.10222222222222223 0.08555555555555555
0.07111111111111111 0.10222222222222223 0.09777777777777777
0.07111111111111111 0.10222222222222223 0.11
0.07111111111111111 0.10333333333333333 0.0
0.07111111111111111 0.10333333333333333 0.012222222222222221
0.07111111111111111 0.10333333333333333 0.024444444444444442
0.07111111111111111 0.10333333333333333 0.03666666666666667
0.07111111111111111 0.10333333333333333 0.048888888888888885
0.07111111111111111 0.10333333333333333 0.061111111111111116
0.07111111111111111 0.10333333333333333 0.07333333333333333
0.07111111111111111 0.10333333333333333 0.08555555555555555
0.07111111111111111 0.10333333333333333 0.09777777777777777
0.07111111111111111 0.10333333333333333 0.11
0.07111111111111111 0.10444444444444445 0.0
0.07111111111111111 0.10444444444444445 0.012222222222222221
0.07111111111111111 0.10444444444444445 0.024444444444444442
0.07111111111111111 0.10444444444444445 0.03666666666666667
0.07111111111111111 0.10444444444444445 0.048888888888888885
0.07111111111111111 0.10444444444444445 0.061111111111111116
0.07111111111111111 0.10444444444444445 0.07333333333333333
0.07111111111111111 0.10444444444444445 0.08555555555555555
0.07111111111111111 0.10444444444444445 0.09777777777777777
0.07111111111111111 0.10444444444444445 0.11
0.07111111111111111 0.10555555555555556 0.0
0.07111111111111111 0.10555555555555556 0.012222222222222221
0.07111111111111111 0.10555555555555556 0.024444444444444442
0.07111111111111111 0.10555555555555556 0.03666666666666667
0.07111111111111111 0.10555555555555556 0.048888888888888885
0.07111111111111111 0.10555555555555556 0.061111111111111116
0.07111111111111111 0.10555555555555556 0.07333333333333333
0.07111111111111111 0.10555555555555556 0.08555555555555555
0.07111111111111111 0.10555555555555556 0.09777777777777777
0.07111111111111111 0.10555555555555556 0.11
0.07111111111111111 0.10666666666666667 0.0
0.07111111111111111 0.10666666666666667 0.012222222222222221
0.07111111111111111 0.10666666666666667 0.024444444444444442
0.07111111111111111 0.10666666666666667 0.03666666666666667
0.07111111111111111 0.10666666666666667 0.048888888888888885
0.07111111111111111 0.10666666666666667 0.061111111111111116
0.07111111111111111 0.10666666666666667 0.07333333333333333
0.07111111111111111 0.10666666666666667 0.08555555555555555
0.07111111111111111 0.10666666666666667 0.09777777777777777
0.07111111111111111 0.10666666666666667 0.11
0.07111111111111111 0.10777777777777778 0.0
0.07111111111111111 0.10777777777777778 0.012222222222222221
0.07111111111111111 0.10777777777777778 0.024444444444444442
0.07111111111111111 0.10777777777777778 0.03666666666666667
0.07111111111111111 0.10777777777777778 0.048888888888888885
0.07111111111111111 0.10777777777777778 0.061111111111111116
0.07111111111111111 0.10777777777777778 0.07333333333333333
0.07111111111111111 0.10777777777777778 0.08555555555555555
0.07111111111111111 0.10777777777777778 0.09777777777777777
0.07111111111111111 0.10777777777777778 0.11
0.07111111111111111 0.1088888888888889 0.0
0.07111111111111111 0.1088888888888889 0.012222222222222221
0.07111111111111111 0.1088888888888889 0.024444444444444442
0.07111111111111111 0.1088888888888889 0.03666666666666667
0.07111111111111111 0.1088888888888889 0.048888888888888885
0.07111111111111111 0.1088888888888889 0.061111111111111116
0.07111111111111111 0.1088888888888889 0.07333333333333333
0.07111111111111111 0.1088888888888889 0.08555555555555555
0.07111111111111111 0.1088888888888889 0.09777777777777777
0.07111111111111111 0.1088888888888889 0.11
0.07111111111111111 0.11 0.0
0.07111111111111111 0.11 0.012222222222222221
0.07111111111111111 0.11 0.024444444444444442
0.07111111111111111 0.11 0.03666666666666667
0.07111111111111111 0.11 0.048888888888888885
0.07111111111111111 0.11 0.061111111111111116
0.07111111111111111 0.11 0.07333333333333333
0.07111111111111111 0.11 0.08555555555555555
0.07111111111111111 0.11 0.09777777777777777
0.07111111111111111 0.11 0.11
0.08888888888888889 0.1 0.0
0.08888888888888889 0.1 0.012222222222222221
0.08888888888888889 0.1 0.024444444444444442
0.08888888888888889 0.1 0.03666666666666667
0.08888888888888889 0.1 0.048888888888888885
0.08888888888888889 0.1 0.061111111111111116
0.08888888888888889 0.1 0.07333333333333333
0.08888888888888889 0.1 0.08555555555555555
0.08888888888888889 0.1 0.09777777777777777
0.08888888888888889 0.1 0.11
0.08888888888888889 0.10111111111111111 0.0
0.08888888888888889 0.10111111111111111 0.012222222222222221
0.08888888888888889 0.10111111111111111 0.024444444444444442
0.08888888888888889 0.10111111111111111 0.03666666666666667
0.08888888888888889 0.10111111111111111 0.048888888888888885
0.08888888888888889 0.10111111111111111 0.061111111111111116
0.08888888888888889 0.10111111111111111 0.07333333333333333
0.08888888888888889 0.10111111111111111 0.08555555555555555
